# 3D point list with one line of data per point:
#   POINT3D_ID, X, Y, Z, R, G, B, ERROR, TRACK[] as (IMAGE_ID, POINT2D_IDX)
# Number of points: 307, mean track length: 9.8134847080630205
5594 -8.7784874224173137 0.44599394315490914 -5.515386316000777 0 0 0 0.56053219383614872 58 416 59 384 61 410
507 0.034837631346847642 -2.5166695334315339 1.1733607590153741 185 190 195 1.2626445299061326 32 78 31 59 30 71 29 69
5595 -20.021521049004612 1.3182268241281649 14.81494487433751 103 96 77 1.5700260543600446 57 434 59 398 60 396 62 396 58 426 61 422 63 403 63 406 62 394
508 0.51660391343036738 -2.4893563770498601 1.010339584516333 210 213 222 1.7218578042212762 32 82 35 87 33 99 34 79 36 84 37 111 38 116 39 112 40 119 43 103 44 123 45 132 46 152 52 194 42 130 47 160 50 190 49 185 48 167 51 206 53 203 56 206
509 0.75755230200242873 -2.5034333581708683 -0.69144634853441833 126 118 107 0.88571142688289828 32 76 33 103 36 99 31 51
510 -0.97232633417545733 -2.4136775399641359 -0.84318150692478988 138 130 119 0.14438905641773311 32 86 33 104
511 -0.54657349252002663 -2.4384493834478005 1.3425022782736415 138 130 128 1.7353171565010828 32 87 35 77 36 67 31 73 30 84 33 105 37 86 38 88
5599 -8.2196900028979787 1.0373290658869487 -4.4856138206799274 195 192 185 1.0049790848927658 46 486 62 455
512 0.80413561055588056 -2.4808815751950868 1.1978753821743529 141 145 172 0.74138467150316556 32 88 33 108 34 89 31 64 30 76 29 67 28 70 27 62 26 74 25 84 24 95 23 96
514 1.544462903498395 -2.5251164254232896 0.73294712339280732 150 147 158 1.4024403263287406 32 97 33 117 31 70 34 102 30 77 29 63 28 67 27 53
5602 5.1773213297033189 2.5965313614239691 -6.7070619730678986 62 78 67 0.39722834802787882 57 506 58 504 59 469 60 471 61 497 62 472 63 481
515 -0.62083261258854194 -2.5108189068260902 -1.7243108008592614 131 125 113 1.7126604392886962 32 105 33 119 30 86 29 81 38 130
517 -2.5565298196631976 -2.5179424875522383 -0.11924302576741819 140 131 121 1.6883879195534313 35 111 33 131 31 101 28 128 39 72
5606 -8.7808412756916567 1.6639675833449403 -3.0520905651631267 181 177 166 0.67723592507853692 58 561 60 533 61 560 62 537
519 2.0515439177565171 -2.48737176477279 1.3516813090396953 148 144 145 0.9991343725125833 32 121 33 140 34 123 31 89 30 98 29 82 28 85 27 80 26 83 25 91 24 97 23 90 22 87 21 79 20 77 19 103 18 81 21 78 16 82 17 76 15 96 14 102 13 112 12 118 11 148 10 161 9 150 8 168 7 194 6 175 3 176 1 220 2 204
520 -1.4071892996830191 -2.4406864559921484 -2.1040982010655322 132 126 114 0.51424996578417159 35 133 33 141 28 112 29 106 27 109
521 2.7649759801258496 -2.4136900590484704 -0.23109214763942587 129 118 112 1.306008388649581 32 131 35 152 33 152 34 143 36 145 31 102 30 102 29 88 28 89 38 182 27 77 26 76 25 80 24 80 23 69 22 48 21 33 44 186 54 247
5609 -8.7526263027128124 1.7755620077667402 -1.9747210469744501 191 187 176 1.1076516304032626 54 603 62 573 63 588
522 1.9560698605625961 -2.5080904852314863 2.5076264508111703 151 150 151 1.1453713297786408 32 135 33 154 34 138 36 139 29 112 28 114 37 159 26 108 22 124 21 115 18 113 15 121 14 130 13 132 12 143 11 173 3 197
5610 5.2312811271760422 1.015642822227121 0.62248793204646868 0 0 0 0.78548594175100606 6 742 7 748
523 1.5100704351254592 -2.5491193653554904 2.9074167182450554 150 148 152 1.0392436894592498 32 134 34 142
5611 -10.949253960056375 2.4799298679141697 -1.8756337571007655 175 169 157 1.1324338343465421 60 567 61 598 62 579 63 587
524 -3.2873878200695197 -2.5588268330553481 1.4654816217924231 154 147 141 0.61992886331476527 35 145 33 158 36 124 37 132 38 136 39 113 40 109 41 96 43 57 44 73 45 64 46 73 42 92
525 3.9242791137257527 -3.3880910532284751 2.440709374934936 145 136 129 1.9811251477946541 32 140 33 162 34 147
526 2.9809572058058138 -2.3220676995494394 -1.0855377497238297 173 186 205 1.74426798153554 32 144 33 165 34 152 30 116 29 104 28 100 27 90
5614 -14.816669729807671 11.817371397716808 5.7940481126605894 0 0 0 1.6460784544127176 55 695 61 692 58 705 59 672 63 683
527 -3.3820127612449884 -2.5587916601001837 2.6220271298257813 158 150 147 1.0165742686583514 32 161 35 153 33 167 34 151 36 140 31 135 30 155 29 143 28 167 37 150 38 157 26 170 39 135 40 134 41 117 43 86 44 99 45 97 42 127 47 112 49 117
5616 -3.8428261231816752 4.9264409842559411 4.2256817648607683 164 158 146 1.2440200632927338 61 703 62 674
529 0.74136141149819579 -1.4190780155453666 2.1222355876040604 150 143 133 2.5797124153199098 35 172 33 170 34 155 36 160 37 182 38 187 36 159
5617 -10.985846953585334 8.5801746285562288 4.3472710715961389 174 164 159 2.406406257514548 60 682 62 676
530 0.74403018126177556 -1.4532156110249077 2.2989048185994023 136 127 113 1.5985694614529318 32 162 35 171 33 171 34 159
531 -4.2769636792938535 -2.529876926738936 -0.86869583190731225 150 142 131 1.1843042014350216 35 160 33 174 34 154 36 144 29 146 37 155 38 159 25 163 43 84 44 96 45 96 46 106 47 113 50 116 49 122 51 129 52 115 53 112
5619 -4.9136701611470963 5.0259089767269804 2.9763152250449232 166 159 153 0.6311437154906282 61 726 62 694 63 707
532 -1.2351898807747121 -3.5593508846142474 -7.3430947691826534 132 126 114 0.66811450117142412 52 218 29 150 58 225
5620 -3.1445238632051113 -2.2692987694022713 -4.4194086131693426 91 87 79 2.3460500810393037 35 203 33 203 34 199 38 211 46 205 62 191 36 191 52 213 29 169
533 1.4668194644426842 -1.2161710213894192 1.9804231621614052 136 130 108 1.2592799103982444 35 201 33 194 36 192
5621 3.5496526813541358 4.1168415082827137 -6.1543042882333365 86 85 63 2.0831339480400546 51 623 61 564 32 684 52 609 35 691 33 706 52 625 34 669 31 664 30 673 29 680 28 683 27 670 26 662 25 680 24 718 23 702 22 733 21 700 43 623 45 634 46 627 42 652 47 640 50 652 48 637 53 613 54 631 55 594 56 600 57 579 57 595 58 589 59 541 59 557 60 556 61 573 62 540 63 559
534 -2.5119161014011979 -2.6538982410299701 5.2140301385337713 155 147 136 1.3050788810741052 32 191 33 196 37 194 26 179 24 213 22 198 20 193 14 223
5622 4.4687295017681485 -2.5915806742423384 -6.2680397420833946 74 74 63 0.83116142476696286 57 275 58 273 59 255 60 245 61 271 32 217 52 277 35 235 33 226 34 223 36 228 31 188 30 194 29 183 28 195 37 238 38 251 27 176 26 189 25 180 39 223 24 202 23 177 22 183 21 176 20 173 40 238 19 195 18 169 16 163 17 159 15 170 14 167 13 161 12 163 11 195 10 209 7 237 6 216 4 219 5 236 3 205 1 243 2 225 0 215 41 239 43 223 44 233 45 241 46 261 42 252 47 259 50 273 49 282 48 269 51 289 53 292 54 273 55 262 56 279 62 247 63 250
535 0.79275631910896527 -0.92652512684039756 1.7887304524103445 152 145 129 1.2499132101347152 35 202 33 197 37 219
5625 -7.4909373860803461 0.99188205234699323 10.40635230815203 123 120 108 2.1118270683625955 7 501 49 474 58 443 36 449 38 474 39 438 45 440 42 457
538 -11.958606808972467 -4.3910257639949535 7.862691482712064 157 149 138 1.3702818376153094 52 214 33 228 31 205 54 215
5626 3.1421681427744623 3.3214183089889757 -8.0735115350049202 17 17 16 1.906913919298765 56 547 59 507 32 626 35 627 33 642 31 593 30 591 30 605 29 598 29 610 28 614 27 601 26 587 25 609 24 631 23 629 22 650 21 616 19 620 18 616 20 622 39 589 62 510
539 0.32226694879082224 -1.4203813516659518 5.516345883869648 154 148 124 1.9379928217262694 35 252 33 249 30 222 37 257 27 209 39 239 47 263
5627 -3.8643699529903337 -2.4886187613851658 -3.9733978621718928 206 202 201 1.4012413003930699 50 197 49 197 32 194 35 197 33 200 34 192 36 187 31 165 30 174 29 161 28 182 38 202 27 167 26 185 25 174 39 181 24 207 23 183 22 201 21 197 20 202 40 171 19 226 18 201 16 208 17 202 15 215 14 226 13 213 12 225 11 261 10 267 9 262 8 261 7 309 6 295 4 289 5 315 3 286 1 327 2 288 0 295 41 164 43 150 44 160 45 170 46 183 42 184 47 191 48 193 56 194 58 201 63 177
540 -4.3657168398116699 -2.4472863214429665 -10.271200024837899 104 99 77 0.58893057401477433 35 260 33 258 34 248 36 256 52 280 29 227 28 235 37 267 38 275 27 222 26 237 25 240 39 245 24 265 23 246 22 254 21 246 20 247 19 268 18 248 16 252 17 245 15 264 14 264 13 247 12 254 11 296 10 305 9 295 8 297 7 357 6 342 4 332 5 352 3 329 1 358 2 329 0 336 49 291 51 291 53 291
5628 0.7603993969097822 1.1646028859216524 -10.449843084583636 46 47 37 1.9291213636095164 22 455 23 434 21 443 20 440 40 440 19 449 18 438 16 438 17 430 15 445 14 447 13 427 12 437 11 465 10 481 9 466 8 463 7 510 6 513 5 529 1 517 0 495 41 434 43 431 45 444 46 451 47 455 50 472 49 481 48 460 51 483 53 478 54 471 55 455 56 457 57 455 59 414 58 454 60 416 61 443 62 418
541 3.4727612118272413 -0.87194107578041047 2.27953663559604 152 146 123 2.1273054827723392 35 281 33 281 34 271 30 223 29 216 28 224 37 280 27 215 26 220 25 222 24 235 23 214 22 221 20 217 19 239 18 215 16 205 16 216 17 210 15 225 14 229 13 216 12 229 11 266 10 276 8 263 6 300
1251 -4.1660414293191792 4.1570081422822049 0.45604920469894877 182 173 167 0.50860024176399721 36 764 38 764 35 760
1252 -7.4255060927839001 14.580409601193178 7.1684113345573763 197 191 197 2.2091339975836171 33 796 37 781 38 768 54 766 63 706
1253 1.7681605895999675 4.9642197414870477 0.091832446108547822 160 151 143 0.70075197236845699 37 785 38 770 39 727 40 724 41 721
1254 -3.1743553761065764 5.2433786746862463 1.4988135747636386 176 167 162 0.074006729425551074 37 796 38 779
1256 0.55586659513554648 -2.4666929359277274 -1.6124354771869596 128 120 109 0.91169436559360084 32 102 33 121 34 106 31 76 30 79 38 145 35 121 37 133 25 82 26 72 39 132 24 89 23 94 22 97 21 89 40 135 41 123 43 131 44 148 42 151 47 182
1258 0.19616160374536742 -7.8093398299784589 -0.51286376066792372 142 133 124 0.44753856877452419 32 11 27 8
1260 -4.4534463017770092 -35.133850961488342 0.56390888211818258 134 125 116 0.2243546091554442 38 10 27 19
1261 0.5560774318510614 -2.429031939146018 -0.38765922800379743 140 132 121 1.1976756299499312 28 9 27 21 26 44 25 57 24 76 22 82 21 80
1262 1.0271995191174483 -2.4882157666220275 0.17662103007954516 137 128 123 0.19046093279905824 28 32 27 23
1263 1.0062529650359384 -2.446930663767263 0.19053724193069782 140 131 126 1.1246408131119614 28 31 27 24 26 40
1264 1.2967988404266311 -2.580179672120277 -0.5364039300737502 138 129 120 0.15449855783587063 28 44 27 25
1265 1.6362282273213657 -2.5006945826162736 -0.40354309206642408 115 106 97 0.82929396379873044 28 58 27 42 26 38 25 17
1266 1.1075103411423564 -50.857713024312673 16.210799551914594 150 142 139 0.37587336035990626 52 75 27 45
1267 0.94002579871970526 -2.510727179581941 0.82773352697562874 152 143 144 0.1624186421842832 28 63 27 51
1268 1.7794808311338486 -2.4758228932386723 0.48706161112460156 142 135 129 0.52544054710352006 28 68 27 55 26 60
1269 0.2957486907224276 -3.0802200930816674 1.0515557141769563 0 0 0 0.54773257423145205 32 65 33 80
1270 -0.076671936396183402 -2.4488904083214424 -1.0737802085483374 132 124 113 0.9253503741385446 28 66 27 61 24 102 25 85 22 107 21 103 20 100 19 129 18 108 16 111 17 104 15 125 14 134
1271 0.47485806427795413 -2.032126510790107 1.1891153506875103 225 237 249 2.1728761691715031 28 79 26 87 25 99 23 118
1272 -0.63252492721828613 -2.4838505830492754 -1.726197009890106 138 132 120 0.24478311206698269 28 86 27 84 26 96
1273 3.8347982318016953 -3.1299137862726627 -0.66811192836092792 149 145 156 2.1780602368138968 28 96 27 88 26 92 25 93
1274 2.4871495826254892 -2.2376071033502427 2.5348209367302239 127 120 102 1.5719227488938861 27 120 26 135 39 183 36 168
1275 4.9430845194126345 -2.3666900164919684 0.89416601983790989 110 100 82 1.2869535799016154 28 161 27 137 26 151 24 158 23 139 22 135 21 125 20 110 19 125 18 96 16 84 17 83 15 90 14 87 13 90 12 96 11 122 10 129 9 114 8 131
1276 -2.652093647840633 -2.5760889584816566 -3.4597201727765605 151 145 131 1.0566782154427334 31 132 27 144
1277 3.9095621142568389 -1.8859108212467286 2.4313257508349384 139 132 104 1.2797328379984363 35 219 27 153 46 260
1278 4.2154509959257345 -2.4270247027389775 -4.714269997607639 105 101 89 1.505252515160566 29 164 30 182 27 162 26 172 25 161 23 163 22 172 21 162 20 158 19 179 18 152 17 140 14 148 9 168 7 198 6 186 4 193 5 211 1 219 2 208 0 195
1279 5.610130167154483 -1.6198593868293762 -2.5238487533670195 133 138 135 1.7100895937855212 28 215 29 200 30 207 27 189 26 206 25 196 24 225 23 196
1281 -11.555891499325904 -3.110850513826295 0.98021453484972698 156 148 137 0.64231083097625208 52 225 27 205 53 224
1282 -4.317876535386481 -1.8281085597607134 -8.1998566268104014 99 91 75 1.2143938056641788 34 267 27 235 23 262 20 265 18 268
1283 -10.67525815796777 -2.5514719895070042 -0.81114554375338555 147 139 124 1.4108306453787143 33 246 27 237 26 239 22 259 21 255 44 218 49 249 57 214 56 219 62 167
1284 -12.301390610246097 -2.9065719672998847 -6.8118082782167662 0 0 0 0.55160349311479218 29 248 35 266
1287 0.72082653133119323 -1.3695827862439809 8.4026418517338097 116 118 111 1.6912791805379277 30 263 38 307 40 298 41 296 43 278 45 290 44 279 42 306 42 307
1288 4.3688716630265167 -0.44529312216944095 1.4954789976016802 167 168 159 1.3611927160246444 30 295 27 279 7 342 8 294 6 329 4 318 13 260 5 343 3 317 1 360 2 327 18 267 0 338
1290 -0.98464288171160419 0.05410766293909744 -7.4799514728746734 160 154 138 1.4602045278335976 31 359 22 367 16 364 11 404 9 406
1293 3.7787807763093362 0.28310694116690305 2.2772653518764203 188 184 172 0.94124486350180669 29 411 26 411 20 423
1294 1.742934194611677 1.1353531539646102 -9.4039782840771338 14 18 14 0.94200437752199662 30 448 27 442 26 445 25 443
1295 -0.93260733612229574 1.1539468909043094 -8.2209457074165666 154 148 125 1.2292392918505877 35 498 27 448 18 448 44 453 39 477 42 487 49 497 51 486
1297 7.0597927858552669 1.308577349444024 -5.7995605405446895 107 113 101 2.0168566491547315 36 483 27 471 34 486 26 466 25 479 21 491 40 456 7 605 6 595 5 612 1 598 2 597 0 571 0 573 41 450 43 438 44 441 45 452 42 471 59 408
1298 -0.88225691968380116 1.135174507686479 7.0562803053990182 60 57 50 1.641027157810715 29 462 27 474 22 482
1300 3.8376904318983303 0.63843921299676321 2.0914088547135248 194 192 179 2.6858194004977913 37 498 27 488 15 502 14 492
1301 1.7749913114654188 1.0189901335446729 3.7835776198578426 201 199 186 1.0859379241466278 31 526 27 522 49 536
1302 0.037898129215056107 2.3421282685855207 -9.2684166633399343 107 108 77 0.62876788392164606 28 540 29 527 27 528 26 517 25 518 24 553 23 525 22 547 21 526 20 528 19 532 18 519 16 526 17 516 15 534 14 531 13 512 12 522 11 553 10 581 9 555 8 544 7 599 6 587 4 576 5 602 3 558 1 585 2 586
1303 -8.6423815529147294 2.7550351629771734 -3.0918173062238616 189 183 171 1.6291806246853429 32 587 35 590 27 545 25 525 23 522 22 544 21 530 16 509 18 523 17 510 14 505 9 526 8 513 7 577 5 575 2 546 0 535
1305 -0.45773524306806668 2.7299700601064503 -9.1854019566862153 68 54 51 1.875006229675819 28 579 29 549 27 560 26 552 25 547 25 564 24 594 23 563 22 568 21 554 20 545 19 552
1306 -4.1485159374691492 2.4657947650260468 -6.2679902670923697 191 181 168 1.6502977978633893 27 565 39 577 38 613 17 517
1307 1.7523233239945133 1.2095856582270219 3.7665187120488355 201 199 185 1.139711241304272 32 577 27 567 44 526
1308 -1.1495663950885104 1.9015719143065919 -5.6977437541380782 0 0 0 0.1272959671803286 33 603 35 599
1309 -4.6222805349782234 2.7769561527510551 -4.4057738680289837 188 182 169 2.037636255366245 36 661 38 662 26 584 23 594 22 608
1310 -7.408329324285595 7.26379301266324 9.0415490248409647 175 167 156 1.4884113481350019 36 718 27 667 23 669
1311 4.5677796279052112 2.1975828699715731 1.3864886074602834 189 182 170 1.8669694023873624 28 669 25 676 29 659 23 705 13 734 11 753 10 772 9 778 8 752 7 817 6 807 4 776 5 806 4 786 3 771 3 783 1 780 2 780 2 792 0 758 0 765 40 584
1312 2.2032821673158134 2.5438196735874667 3.2931458512183513 190 188 174 1.3008061755692204 29 688 37 699 27 676 51 628
1313 -7.4138012767050245 6.420368242171123 -0.64247974523545814 182 172 162 2.2174698751672812 32 742 37 752 27 687 18 675 0 679
1314 2.1643744522264163 2.8961728129629289 3.2382115919800674 190 188 173 2.0836642733854331 37 719 27 694 25 704
1315 4.4212091015641724 3.5237419462275859 2.308343948644211 192 190 177 0.77409594159093464 31 695 27 696 18 744
1316 2.0094110739531743 3.638160850410832 3.2356550653073586 185 179 165 1.273140628336535 28 726 36 750 47 681 56 648
1317 -10.578993659550894 18.521018337384852 -0.44370546525643217 209 207 208 0.91007040501789316 33 804 27 732 25 745 32 774 37 792 24 790
1318 -3.2337164421764126 11.942742228278538 4.6433800087369796 186 177 180 1.5808401448731058 29 751 24 794 25 749
1320 4.953505404907621 -1.8550040227747704 -10.20817497896588 142 160 148 2.3866996029199954 31 257 52 332 28 260 29 253 27 242 30 261 26 254 56 327 57 323 58 321 60 284 59 295 62 290 61 314 63 295
1321 -0.35887818076171224 3.6367599305118574 6.5607814689252431 57 54 48 1.5948010079112227 33 715 34 684 30 662 29 656 28 663 27 642 32 672 33 700 25 641 24 669 23 656 22 672 21 639 20 645 19 641 18 624 16 628 17 623 15 633 14 631 13 598 11 632 9 632 11 628 8 619 6 662 5 669
1322 0.94541819151851281 -2.3828170852999042 -0.25404633252896136 139 130 123 1.2744744834492694 28 3 26 6
1324 0.82818273168482714 -4.4603466334320752 -0.63198039336300194 143 134 125 0.88739730788268423 29 13 26 14
1326 1.3642124798108022 -2.5367132718211804 0.31436971240793565 142 133 128 0.084721519869578849 27 39 26 45
1327 -1.2833103356327367 -12.99707428612189 2.9238060839943865 155 143 145 0.1296672242795337 52 65 26 53
1328 2.1586988713887121 -2.4435976358763982 0.19262046172998037 135 128 122 0.73676241712177037 27 60 28 74 26 61 25 65 24 58
1329 0.062124257578406047 -2.5253364605072504 1.0444659891657493 190 192 205 1.4884981614069908 27 68 28 72 26 79 25 92 29 64 24 108 23 106 22 113 21 109 20 103 19 135 18 116 16 117 17 108 15 131 14 140 13 144 12 150 11 184
1330 0.76072616251267133 -1.5842719264634268 -1.3800071811077284 135 127 116 0.29936876433559878 27 72 26 81
1331 1.3923177656469912 -2.2286192466327037 1.6354301330171439 142 137 140 0.96254058711219992 27 85 26 91 25 101
1332 2.9047054242703236 -2.410582225767723 -1.3900052312963638 158 162 175 1.7300078351547254 28 98 26 94 24 94 23 84
1333 -0.53560490334000688 -2.7634310189159281 2.5571788389864984 152 144 141 0.40630628849848777 27 100 26 109
1334 3.4016945781438945 -2.2714080481768368 -1.8371451483436647 155 162 172 2.0233312766251688 28 133 26 110 25 111 23 116 22 106
1335 3.3414182181465888 -2.9639207919681536 2.5624201038218999 137 131 115 0.12886162218685338 38 184 26 115
1336 2.4686226823776711 -1.5551885832590697 1.0351885268923238 137 130 119 1.0471333269736629 28 132 26 116
1337 3.5347886222012748 -2.1477314485760375 -1.4715733367379538 193 204 227 1.9446729220616481 28 135 26 120 24 127 22 102 23 112 21 87 20 79 19 96 18 65
1338 -0.90117490723434979 -2.2636879236587326 -3.2799093103721133 139 133 121 1.0437477836857685 27 129 26 146 24 167
1339 1.3435889956998071 -2.1096435374415403 -3.7083148819530978 95 91 81 1.4585243046974576 31 137 26 149 30 153 16 136
1341 1.8232478845881552 -1.1833300999397487 2.0675250314343923 0 0 0 0.534262192210186 28 169 36 213
1342 5.8947419038514592 -2.4198841006236553 -1.7270896809164438 122 116 105 0.59763440165283288 30 180 26 165 22 159 20 135 19 154 18 121 16 96 17 101 15 100 14 97 13 99 12 94 11 118 10 116 9 99 8 109 7 104 6 80 4 90 5 95 3 78 1 86 2 84 0 88
1343 1.9885159433485062 -1.648559216983416 3.1099545868872673 140 133 105 1.3950682621604502 34 197 26 167 24 185
1344 3.8206147577989151 -2.5090674301278471 -4.9371548889345158 111 107 96 1.5529914362941997 27 160 26 171 25 159 21 164 20 163 19 180 18 153 16 142 14 152 11 170 9 172 8 175
1346 -7.2425563731500828 -2.8206280017314116 -0.14161944173308025 164 156 144 2.2550509400928491 34 205 26 198 22 216 48 156 15 233 39 187
1348 -6.6041314940871745 -3.4416954448285728 14.666597067073626 147 141 109 2.0127276979574815 35 274 26 246 25 243 23 258
1350 1.7343523811977939 0.031849213272523623 -8.9991864388302378 35 37 24 0.82385041876214804 52 399 26 368
1351 32.226898420273621 1.4045079571419639 -23.259943370976021 156 161 138 0.88745817495093127 27 377 28 395 29 380 30 395 31 381 32 397 33 422 34 412 35 415 36 405 37 415 38 427 26 384 25 387 39 385 24 413 23 384 40 403 10 435 9 419 8 425 7 484 6 465 4 460 5 484 3 451 1 477 2 464 0 453 41 392 43 384 44 392 42 409
1352 6.5779267940550383 0.28205918307330213 0.74865525634314278 91 91 78 0.83628512171808356 27 395 28 411 26 396 25 400 24 423 23 402 22 411 21 408 20 399 19 418 18 401 16 403 17 398 15 413 14 419 13 408 12 413 11 449 10 471 9 452 8 448 7 509 6 497 4 512 5 521 3 497 1 527 2 511 0 500
1353 11.808363418975878 0.88912971563049092 -5.5290108943525134 153 162 136 1.2707700588416633 31 407 32 438 33 454 26 406 25 411 23 414 22 423 14 439 13 417 12 429 11 463 10 479 9 464 8 471 7 533 6 503 4 497 5 523 3 484 1 516 2 502 0 488
1354 5.977990384122541 0.38525415648973638 1.4068627713902118 80 77 68 1.4555658674997298 27 415 28 427 26 422 25 420 24 451 23 432 22 436 21 438 20 436 19 453 18 430 16 426 17 424 15 439 14 444 13 433 12 440 11 474 10 498 9 474 8 469 7 532
1355 -0.0086044673293824009 1.1368232259829407 -9.1330646944999625 33 29 10 1.2891198373134043 27 436 28 451 26 436 22 461 21 447 20 441 19 458 18 442 16 445 17 441 15 455 21 467 13 438 3 505
1356 -12.133439313228434 1.9844614377213128 -1.7417394460772324 182 175 158 1.7730868908597861 31 460 32 494 33 510 26 451 25 464 24 487 16 456 18 464 17 452 14 455 6 517
1357 -4.4364952935046507 1.6641384202720413 -6.9458273426918327 186 186 172 1.4553699643876039 29 500 26 483 44 510 45 508
1358 -7.6840578310095875 3.3501347639025085 -10.197539066551778 189 185 173 1.584052940124093 28 531 29 528 26 511 24 555
1359 1.2812865042719124 1.4089123291234631 5.3435811713151509 92 88 79 1.4410062936528161 34 563 36 564 33 579 37 557 41 529
1360 2.8447975428484744 1.4325974788418914 -0.46343284430432108 0 0 0 1.8415733584496907 31 652 33 682 35 646
1362 -5.0007717521174637 4.0266618513322898 -5.4472647929383928 189 183 169 1.0798521141906876 32 674 8 601 6 652 1 645 0 622
1363 4.7395249013933185 2.1431931869414109 2.2366425141976998 198 196 184 2.1981088713647616 26 615 27 629 24 679 20 685 18 688 35 645
1364 -6.5228266393678931 5.0904564073488885 3.8404521465823493 0 0 0 0.8062973035925014 28 684 34 703
1366 -0.36631077084298713 4.2182248086181557 6.548400446953039 63 59 50 0.72052269494487453 32 706 26 660 40 673 50 711 49 695 48 682 51 694
1368 7.6789712794073015 4.8849775632229679 0.53313657021062955 72 65 55 1.3976696289402293 20 733 16 758 10 824 15 771
1369 2.1555197797551413 3.3110240488137284 3.6882739575468722 188 186 173 0.64192052699990032 33 747 26 691 47 666
1370 -10.193322872475495 10.916805124966913 1.0710202030554197 194 184 183 2.1889526756696225 36 758 26 703 39 715 23 734 20 722 40 714 41 715 43 703 44 712 44 713 45 716 46 713 46 715 42 723 47 735 50 785 52 743 49 751 48 733 51 741 48 734 59 699
1371 5.9952661903171656 5.1151315040859027 1.3129140271699891 64 57 49 1.0918047422874602 27 706 29 714 30 713 26 707 25 725 24 773 23 754 22 778 21 749 20 760 19 751 18 761 16 788 17 766 15 797 14 784 13 790 12 772 11 814 10 843 9 836 8 827 7 886 6 884 4 858 5 873 3 850 1 854 2 862 0 843
1372 6.8819965884556824 7.489566129305314 3.5623341751670652 185 182 167 2.2749951265944532 29 722 26 714
1373 -2.6043530922835956 4.8260652637063197 -0.82933211457974376 199 191 188 0.4867988728572481 27 722 26 718 25 736
1375 3.7716389491790401 5.0572494405382606 1.1243148834145111 171 162 153 0.69256925468012376 27 736 26 733 25 752 23 775 21 777
1376 -1.5763401750547379 8.3563621021195384 3.2312337246033072 199 195 195 1.6406300990631404 27 745 28 760 26 736 30 758 25 750 24 795
1377 -0.94964701552132702 5.1523354159096195 0.73324638195545533 167 160 154 0.62022472968439157 27 748 25 756
1378 0.27475000864063748 5.5688594864973959 2.0164705571133039 180 173 167 0.32991185433211972 27 747 24 800
1379 2.335095960786989 4.8713940952331729 1.2499579660046261 170 161 152 1.9469006790996242 27 746 28 763 26 744 25 762
1380 -0.91647111499072142 5.5910504038174009 -0.20067364561849624 174 165 160 0.9794639260452529 28 766 26 746 25 760
1381 -0.40162533762892871 3.9555575799523255 -8.6432246234237802 27 22 20 1.1401731569952838 27 623 28 633 29 629 26 605 25 620 24 648 23 639 22 658 21 620 20 629 19 623 16 621 17 614 15 628 14 626 13 605 10 656 9 652 12 601 8 628 7 685 6 671 4 651 5 674 3 633 2 659
1382 3.0268128990269618 -2.4459615899746634 -2.5885178993698559 120 118 111 0.90778500669138862 29 123 28 134 26 112 31 124 35 190 30 135 32 160 37 205 24 130 25 115 23 124 22 115 21 102 20 88 19 112 18 88 16 76 15 84 14 81
1384 1.0321054305260891 -7.3638492609442698 -0.090709353855025265 148 139 132 0.49875266385011396 31 15 25 1
1386 0.46094240627185951 -4.3799621453519588 0.11305191693220398 0 0 0 0.28160681510407087 27 16 28 4
1387 1.6121238554458364 -2.7147758081944886 -0.31494801092408309 129 120 113 0.79455392152021553 26 34 25 11
1390 0.9821583079416305 -4.0065757421031094 -0.70998140331524595 143 134 125 0.81561487013433076 28 15 25 19
1391 1.7551241113841263 -2.5733366935121214 -0.27270158264029598 132 123 116 0.16855245280434406 26 43 25 22
1392 1.0470338454945987 -1.9062723293059978 -0.52719514915891441 145 136 127 0.82074822639731981 28 42 25 35
1393 1.6327275938280006 -2.3956833672327047 0.58133968750426235 154 146 143 0.094101889530373017 27 54 25 64
1394 2.2807129478092043 -2.484472715470651 -0.77204487216001516 132 125 120 0.71772450354907213 26 66 25 68 24 61
1395 2.2103303305014297 -2.5198073060150747 0.30517711122685892 122 115 109 1.3364350685415431 26 64 25 70 24 63 23 57
1396 1.6104496648784219 -2.4890590022215564 0.78782002233009363 130 122 119 0.92605994342374665 26 62 25 72 24 78 23 73 22 68 21 66 20 70
1397 1.8205216116506757 -2.3807118363671051 -1.4250036963869477 125 118 112 1.293823689234227 27 66 25 75 24 79 21 60 19 89
1399 0.48950876398395693 -2.3413849014777122 1.3483057522806721 225 225 227 0.49783334495060783 27 70 25 94
1400 -1.6465954364345836 -2.5346011657547658 -1.490898475314534 0 0 0 1.3174989628090228 32 114 34 103
1401 -1.8737045712523033 -2.5125545135486838 -1.2747836298058377 123 119 113 1.2299899935522647 26 118 25 123 24 144 23 148 24 155 22 150 21 151 20 149 18 154 16 154 17 146 15 161 14 176 13 168 12 174 11 213 10 229 9 214 8 226 7 263 6 245 4 250 5 272 3 248 1 278 2 255 0 261 55 150 56 172 57 172 58 183 59 162 60 163 63 172
1403 3.3907038682488748 -2.2625058795158211 -2.8481413767721215 129 124 120 0.57553846767304839 28 152 31 141 25 133 34 188
1404 -0.19116674478302437 -1.6169523023906236 -3.177332435411834 136 130 118 0.39863418929013905 35 196 25 155
1405 -3.4793362371787167 -1.9847382094342205 0.038200517918773769 161 153 142 2.0583071511836648 31 139 25 167 22 204 21 189 19 237
1406 3.7402210705509349 -1.1841296925138161 1.2193527751454301 143 136 112 1.7990156313568548 32 223 25 170 29 182
1407 -4.5513281520020001 -2.3213312918715552 -0.33794517261930435 159 151 140 2.0507148410944231 28 175 31 149 25 173 17 211
1408 2.368164732427795 -2.7300366255577533 -9.1350653634012726 88 90 79 1.513430375782528 28 213 29 198 30 206 25 199 22 212 41 252 44 241 48 276 51 295 58 279
1410 13.354196002370724 -3.1323926284200194 -5.0107452729314765 82 88 86 1.8872952634569065 23 223 22 233 21 220 20 226 19 247 18 223 17 216 16 218 15 228 14 233 12 224 11 253 10 258 9 241
1411 3.0579992861959715 -0.87619961706194205 2.5964323603693757 109 119 126 0.82872258477579663 26 227 27 214 25 221 39 285 24 245 28 231 29 222 23 213 22 222 33 275 21 214 20 222 19 245 18 221 16 217 17 214 15 229 14 234 13 223 12 233 11 271 10 282 9 271 8 271 7 324 6 308 4 303 5 329 3 300 1 335 2 302 0 314 41 291 43 287 44 286 45 292 46 310 42 311 47 303 50 328 49 343 48 316 51 348 53 347 55 318 56 337 57 331 58 329 62 298
1412 2.6206870483182469 -0.85649113171940039 2.9257808377611068 159 158 153 1.1046466926411098 28 233 29 225 30 234 32 245 25 227 39 264 23 221 21 223 20 231 40 287
1414 -12.875704708506152 -2.2882193158784725 -10.724666609459419 102 97 84 0.48861362200732683 26 284 27 274 28 292 29 281 25 285 24 314 23 297 22 303 21 294 20 293 19 319 18 299 17 294
1415 -15.546266434649933 -2.3030138946685219 -6.060241013643564 103 98 78 0.70063151059305617 26 285 27 277 28 293 25 288 24 315 23 298 22 308 21 299 20 294 19 320 18 300 16 299 17 299 15 309 14 304 13 294 12 301 11 337 10 348 9 336 8 339 7 402 6 384 4 372 5 398 3 369 1 400 2 371 0 370
1416 -6.3530905188617197 -1.2502335607712372 -8.1737743146853088 0 0 0 0.84118787604039935 52 313 48 311 53 325 54 308
1417 1.7715239499560815 -0.20434277123170427 1.6905978324964981 191 189 172 0.45185573202108642 26 299 25 302
1418 2.3486444780757001 -0.19153158938342602 2.9854395742012674 191 192 179 1.7931243275367614 26 327 27 322 25 333 24 355
1420 5.1305497387130332 0.25302458697211122 3.1094146319124101 189 187 175 1.2620916090002092 27 384 25 398 24 429
1421 21.732014820919314 1.6112590022069282 -19.379675553191934 143 149 123 1.2116520339332835 26 390 27 385 28 401 32 435 33 455 25 401 36 436 37 444 24 432 23 410 22 412 21 405 20 400 19 417 18 402 16 408 17 405 15 410 14 416
1422 7.6236531262217326 0.68033256425032618 -6.396767417789067 159 169 144 1.812748112595375 26 408 27 406 28 422 29 415 30 418 31 410 35 451 36 440 45 406 46 413 48 417
1423 6.3400572674187909 0.78215332476774391 0.98260072831050171 69 66 61 0.91401187508351767 28 466 25 473 24 493 23 475 22 503 20 495 19 505 18 503 16 503 15 518 14 518 13 504 13 528 12 528 11 566 10 590 9 576 8 571 7 634 6 625 4 620 5 639 3 605 1 628 2 630 0 603
1424 4.4755879892089538 1.2378558618864448 -6.3454670401308615 83 90 80 1.8721408918721059 26 481 31 466 25 484 23 493 22 508 21 497 20 496 19 502 16 490 17 489 15 504 14 501 13 506 14 525 12 518 10 570 7 582 6 568 4 561 5 583 3 546 1 573 2 571 0 552 43 443 43 474 44 451 45 481 47 484 62 428 58 460 59 424 60 429 61 456
1425 6.3073017028847813 1.7128520294923462 -6.0736936563807395 23 23 23 1.347143524987797 37 507 25 506 13 542 12 549 11 583 10 609 9 590 8 581 7 642 6 628 5 640 3 606 1 639 2 631 0 616 43 473
1427 4.5684555448349071 1.0635496962914879 1.7595006284573234 197 196 191 2.5167748323122909 36 527 25 559 20 594 17 586 15 596
1428 0.343564318921597 3.5092549100441559 -10.470057715777452 127 123 98 0.93173302834363658 26 556 33 615 34 592 35 609 25 573 39 573 24 600 23 587 22 601 21 577 20 576 40 561 19 580 18 570 16 577 17 569 15 579 14 574 13 552 12 555 11 591 10 615 9 597 8 587 7 652 6 629 4 613 5 641 3 597 1 630 2 623 41 566 42 584
1430 1.571886833804268 3.5032173082333564 -9.3998342084458049 20 19 11 1.6066415890666983 26 578 29 600 25 594 20 604 21 596 19 600 18 589 16 595 17 592 15 600 14 604 13 581 12 582 11 612 10 630 7 670 4 639 3 625 5 662 1 651 2 646 43 567 46 575 42 601 50 603 48 591
1433 2.4983115482832319 1.8547238906170951 3.0736001431617415 198 196 182 2.0125683105594017 36 648 37 648 25 640 20 663 19 656 18 652 15 646
1434 3.9346807551746212 3.1909148887577099 -6.1522579120767071 74 76 64 1.5370847346085403 26 626 27 632 28 647 25 644 24 673 23 665 22 687 21 663 20 671 40 586 19 668 18 664 29 627 32 641 33 660 38 629 30 620 31 615 16 673 35 638 37 618 17 662 15 689 34 621 36 631 25 630 39 599 28 631 24 659 27 621 14 688 13 671 9 709 10 721 8 695 7 744 6 741 4 713 5 742 3 710 1 731 2 721 41 590 43 566 46 574 42 600 47 581 50 601 49 601 51 603 53 586 54 585 55 547 57 547 59 510 58 547 62 517
1435 -3.4416308844890713 2.4975842728288229 3.1344053714411961 0 0 0 1.9404960851565798 30 649 37 718 32 669
1438 -4.2209599442714607 4.5517009436634055 1.7621737453102451 196 188 185 0.48696780914426352 26 689 27 698 25 700
1439 3.6193277385662337 4.4151509639858535 -5.2897687381434109 98 96 81 0.72904800780713663 26 688 27 692 28 711 25 702
1440 2.1503836197736508 3.4046782020675495 3.3884754209557402 191 188 173 0.84075600042564425 25 712 21 732
1441 3.6253306559773821 2.9133209401279925 2.0736415058196589 195 193 180 1.3630537997418724 32 720 25 714 11 758
1442 0.33691886457749798 5.4847573743661906 5.3135792458039672 162 154 143 2.3695517938527546 30 726 25 722 44 697 50 739 51 720
1443 3.9175719141675565 4.1794094649237028 2.3416138829824518 189 185 173 1.5381039486386194 30 722 24 779 22 779 21 753 12 748
1444 4.4025669973278836 4.9318917345967961 -0.026715738238842109 156 148 137 0.73427180148209414 30 741 25 748
1445 12.95236934471494 0.13114616012889496 -5.8711809755328197 74 84 81 2.147634122776338 26 372 37 410 34 404 52 409 32 380 35 395 33 403 36 394 31 358 30 372 29 363 28 369 38 418 27 365 25 378 39 381 22 377 40 396 41 384 41 366 44 382 43 374 45 390 46 404 42 404 47 396 50 418 49 424 48 402 51 427 54 413 56 393 59 357 57 392 58 385 60 347 62 345 63 353
1446 3.0194543766928348 -2.440067903342702 2.5240286589321768 126 120 106 0.89350678154066476 32 159 35 179 36 169 31 123 30 140 29 127 28 138 38 198 27 118 26 129 25 125 33 175 34 163 24 138 23 131 22 131 21 122 20 116 40 185 19 138 18 114 17 100 14 124 13 127 41 188
1447 7.6737450027714029 1.8298021444270771 -4.0803850120542604 17 21 18 1.0995486291987664 32 533 33 548 34 524 35 540 36 528 31 505 30 504 29 517 28 520 38 533 27 514 26 508 25 529 52 493 37 517 39 499 24 560 23 540 22 561 21 551 20 549 40 492 19 555 14 584 12 577 11 615 15 580 16 572 10 633 9 629 8 627 7 691 6 676 4 674 5 682 3 654 1 675 2 670 0 661 44 486 43 480 45 491 46 498 42 506 47 499 50 515 49 520 48 501 63 443
1450 -1.4150691999231633 -2.382714410993922 0.51342086387470054 145 136 131 0.80033478504301403 37 42 39 5
1452 -2.0132080243502402 -11.627280230835519 -1.3458760312214197 143 135 124 1.5212980741057165 34 40 39 12
1455 -1.1167285723286362 -1.9678325190833048 0.38632838630261129 139 130 125 0.013298385270753426 36 29 39 24
1456 -1.8863873346293691 -2.6266208516371763 0.20438309595853352 138 130 119 0.43866673164065378 38 51 39 26
1457 0.71553736197366391 -22.20025121328608 3.6330606641994616 134 127 119 1.7290175842814803 34 32 39 31 23 35 17 25 55 60
1458 -1.0366938406190425 -2.5235661910516405 0.70212940755268327 142 133 128 0.39701003644128463 38 32 39 36
1459 -2.0129035605068153 -2.5068576369165605 0.49437353294227993 146 138 127 0.63564406202982293 37 80 38 68 39 40 40 30
1460 -1.3421207318194945 -2.4503089595240604 0.9287666613275436 128 119 110 0.15311614419215921 38 52 39 42
1461 -1.0283304011221035 -2.5529119406078786 0.82356460242004914 132 125 119 0.31001886993749084 38 41 39 45
1462 -0.85237910577160991 -2.4489472687343898 0.56553023391120971 138 129 124 1.8184265449400576 36 18 39 46 43 59 45 88 42 82
1463 -0.63204107924624897 -2.5954306814540482 0.25558351668982249 142 132 130 0.60981275067902974 38 45 39 54 40 68
1465 -1.8894566724201605 -3.7078135390314837 1.6636186520757126 144 135 126 2.1280922491945793 38 77 39 65
1466 -1.9388692548641309 -2.8209776081036666 -0.73896401127848155 123 115 104 1.7688229394904795 37 90 41 67 42 72
1467 -0.73682212361111765 -2.5296008447155001 -0.54615065684927411 145 136 127 0.92277234079826864 38 74 39 69 40 80 41 83 43 69 44 90 45 100 46 120 42 91 47 127 49 152 48 131 51 175
1468 -0.45057762699332193 -2.4810392099566179 -0.77530816576393247 138 129 120 1.0255404372982344 38 89 39 80 42 109
1469 -1.628877022258403 -2.5204404882103657 -1.3695811706579557 118 113 98 0.67755189416768413 37 114 36 100 38 105 35 109 39 90 41 95
1470 -0.28511828684145674 -2.5416870576044803 1.5194415330523758 149 155 177 0.042174647298355059 38 98 39 85
1471 -3.210918651855462 -2.5644216547376897 -0.12266816067994453 108 103 83 0.72468870302991284 37 127 39 94 34 128
1472 -3.0950658136377727 -2.4582392635278105 -0.25674232595657631 103 99 80 1.418249201136939 38 123 39 95
1474 0.028470885524519887 -2.3555675468475519 1.4242573121089379 176 187 207 1.6160961978150252 38 109 39 106 40 114 41 107
1475 0.5482098918376429 -2.4147746474850051 1.079306498227631 195 208 227 1.4643999119462037 38 126 39 116 40 121 41 114 42 132
1476 1.1291628115705499 -2.9822272560309617 2.8351924349334015 154 160 182 0.77236800418117035 38 151 39 139 41 132
1478 -5.3992987616905479 -2.482341589727096 0.20741761707798326 146 138 127 0.91261838863623201 37 177 39 162 40 160 42 152
1479 -2.7974590659375065 -1.5572455972387751 2.3571059844778901 0 0 0 0.94683467481027983 32 195 34 189
1480 -5.750212539413404 -2.6056823672730021 2.4351531319531117 151 143 132 1.0935691234008535 41 153 44 141 43 135 46 146 42 166 47 143 50 134 52 123 49 147 48 134 51 143 53 120 54 107 55 102 56 98 58 91 60 78 61 91
1481 4.3024353491244218 -2.3860749277892035 1.4429665852449622 123 116 108 1.2970248770347226 30 152 24 140 25 132 23 132 22 128 21 114 20 102 19 119 18 93 16 85 17 82 15 91 15 92 14 96 13 104 12 104 11 130 10 143 8 144
1482 -7.0270275785231497 -2.4750291463863072 -2.7938256781197288 145 138 125 1.1976267318711573 36 217 39 203 45 192 52 202 47 197 50 208 48 196 51 214 53 194 54 183 55 171 56 188 57 190 58 189 59 157
1483 0.87489496968588454 -2.7467660503031257 -6.8716135364655759 123 119 107 1.2303293611802986 39 206 24 197 46 235
1484 -7.8792530209861917 -2.7413024346574453 6.6489919391122552 158 150 139 1.9613146016471144 39 221 40 227 42 243 61 203 33 238 63 176
1485 0.61810865738437359 -0.98066885384403057 2.9387366983010423 157 150 131 1.4487198441119076 36 225 39 222
1486 1.8275713479098674 -0.84874564762018589 3.6300980835397958 155 152 137 1.2926225322558318 25 244 27 233 24 259 26 242 28 250 23 239 22 245 21 237 20 245 40 293 19 267 18 246 16 253 17 243 15 265 14 272 13 257 12 262 11 310 41 290 43 286 44 284 45 296 46 308 42 309 47 300 50 315 50 338 49 341 48 314 51 339 53 340 54 318 55 308 56 326 56 345 57 329 58 325 60 290 61 325 62 297 63 302
1488 -1.8195489838009025 -1.0104017132573662 6.4437594163704155 155 150 128 1.2354776526483628 52 309 39 280 50 302 58 303
1489 -7.1318577621064536 -0.6023553844084869 -4.7525007029272297 118 114 98 0.40348358337761542 38 358 52 340 62 291
1490 1.790579166240315 -0.67217186210396607 -9.0865327276328518 22 26 17 1.3193626970883447 25 317 26 312 20 314 39 324 40 344 19 335 18 319 16 321 17 313 15 330 14 324 13 318 12 323 11 365 58 345 59 317
1491 11.057546877039249 -0.47833292804538641 -5.0187884014494166 148 159 151 1.7800773773658256 37 370 38 378 33 379 34 369 36 363 52 388 40 375 6 396 3 379 1 412 0 383 43 357 44 363 45 350 38 402 46 387 49 405 48 382 53 405 51 407 54 389 55 373 61 370
1493 -11.07647345607668 -0.079706300116136664 7.407232706559947 188 180 157 1.8776435073311066 30 379 38 393 39 358 40 376 12 366 31 368 46 396
1494 -2.6636886056589675 -0.17708181875418283 8.1819856570808991 175 174 159 0.57861618273134785 35 389 39 360 44 365 55 376 60 346
1496 -11.517420756124274 0.70667498713286625 -1.2544887593838996 194 188 173 2.3062643266101266 52 457 39 406 50 466 55 446 58 440 57 464
1497 0.11015041219058785 0.23504821974934528 6.5342712164894134 91 88 79 1.7814748123126609 36 417 49 444 22 403 39 409 48 407
1498 2.3551569350020172 0.5507216425096163 5.2079800165340426 99 96 84 1.4838093204291245 38 472 39 430 43 426 44 433 45 442 42 454 47 452 48 452 53 459
1499 -10.029548610042836 1.6554788012759518 -4.4694326403341247 205 202 193 2.2347949991659344 35 503 39 478 24 469 25 462 23 459 15 458 13 429 10 482 42 509
1500 -8.040765422896019 1.472832981666691 -4.0832851348301125 205 202 193 2.0714613311045587 39 497 41 501 51 549 53 560 59 494 62 500 46 510
1501 -2.348960359580218 1.1867540948639967 6.1689237122231217 195 193 180 0.91449718265785185 31 484 36 526 42 532
1502 11.526276468952059 5.5690942719374474 -20.112940802077748 120 121 103 0.29916887684460364 35 549 36 542 37 545 38 554 39 519 40 511 41 511 43 506 44 515 45 520 46 524 42 536
1505 -26.465836854376136 9.1210735669739584 17.29925711148293 197 193 185 0.95310330151223144 52 585 39 559 43 551 44 565 41 564 45 569 27 547 28 557 46 569 42 581 47 577 50 604 49 603 48 588 51 606 53 595 54 599 55 569 56 581 57 572 58 574 59 537 59 545
1506 -8.8882628978039104 2.7136896510186266 -3.8633101130654643 195 190 180 2.2990615851594942 52 623 39 562 62 587 56 614
1507 2.8200058115725288 1.4260409356084949 2.5845075225733058 80 84 84 0.0026711212987254179 37 599 39 565
1508 -30.170136918416826 10.850593992126305 11.701354964595016 153 144 129 1.5497588131021123 26 549 27 566 28 576 29 569 30 559 31 569 33 617 34 593 35 603 36 598 37 607 38 606 39 584 32 603 24 595 25 569 30 572 26 557 23 578 22 593 21 565 20 569 40 564 19 577 18 560 16 560 17 563 15 570 14 568 13 545 10 603 9 589 8 573 7 635 6 617 4 600 5 630 3 587 1 606 2 609 0 583 41 572 43 572 44 580 45 594 55 590 57 602 53 626 54 626
1509 -22.679574699332179 9.6612529387394055 13.520018281113481 195 188 180 1.0758076366558049 52 631 39 600 40 591 41 599 43 590 44 600 45 612 46 609 42 621 47 623 50 644 49 631 48 623 51 640 53 639 54 644 55 609 56 629 57 619 58 614 59 587 60 593 61 605 62 590 63 600 36 627
1510 12.055671027187618 5.2962104814915945 1.4701891510483047 77 68 61 1.3027999855588963 28 645 22 680 21 655 20 670 40 594 18 666
1512 -8.5754103042732375 6.956431808341816 8.8815949958712359 181 173 162 1.6455506407822356 29 667 39 670 43 665 42 690 50 720 11 626
1513 2.8685075179081454 3.2481976285459817 2.9845908774952248 189 186 171 1.7670943077630294 25 713 39 675 16 740 24 750 17 733
1514 3.8028700056870344 3.7851390491368195 2.2444324375092695 191 185 171 1.6813214702582637 33 754 39 678 50 681
1515 -6.6426284953533559 4.8713431186993947 3.2843993474836175 178 170 162 1.8786255523377857 37 732 39 688 41 702
1516 5.0764761172142174 7.4462220737313549 -5.8363367149861878 158 149 141 1.7838552428672187 52 691 39 691 40 691 43 674 49 698 48 691 51 703 53 689 55 655 56 670 57 654 58 649 59 624 60 623
1520 4.5100302417101057 9.8991264606422416 3.6828351341369179 0 0 0 0.2418663322495874 27 742 30 754
1521 -8.3649730419696304 10.31891185288517 5.670208786231794 184 177 171 1.7717082029255085 31 721 39 712 40 709
1523 -0.12716111259930823 5.016494828167529 2.1776336427006808 168 161 153 1.1367099422283511 37 798 39 740 41 734 43 725 44 726 50 770
1524 -0.5660184694997803 4.9982420607618288 1.9141234678090138 160 153 145 0.66391421142475326 36 797 38 784 39 745 40 739 45 740 44 733
1525 2.183660250835874 1.3779803177318988 3.7941952294014265 120 119 111 2.7457824305895655 32 606 37 586 32 592 35 591 39 553 28 572 20 586
1526 -1.7810738801855484 -2.1706750912529391 -1.26928634567482 92 87 77 2.387888219853898 37 121 38 119 35 123 36 109 27 111 26 128 39 101 44 95 46 119
1527 0.13720759688969844 -25.007576417104374 0.52889028146226158 145 136 129 1.0880376941270324 39 6 24 3
1528 0.73043481979803515 -13.74804819397802 -0.79309841091646693 146 137 130 0.40148437688195304 26 0 24 5
1530 0.10727090877803599 -14.11704734371269 -1.2742998668892163 0 0 0 0.0086666217222601885 27 6 36 22
1532 -1.1928175252006807 -7.5512653791416238 -0.73341611282597186 0 0 0 1.0411681487101863 33 40 37 21
1533 19.17821204270302 -101.374254515446 13.685897310052574 134 127 121 0.14491168724591003 38 49 24 41
1534 1.283115385656844 -2.4858312785827734 0.19581599191191285 133 124 119 0.55262170317862092 25 32 24 43
1535 1.0187215532110954 -2.4654956077753178 0.10264468161625492 142 133 126 0.89497594643725242 25 37 24 52 23 65 22 62 21 65 19 98 18 80 16 87 17 77 15 98 14 105 13 116 12 128 3 186
1536 1.0031728039427126 -2.5517760891867964 0.22954622410434425 126 117 112 1.0480405203481775 25 40 24 56 23 68 22 64
1538 1.05434208202584 -2.4219575096952646 0.34850182324341977 149 140 138 0.084682434812288737 25 52 24 66
1539 0.87072272939431161 -2.5701665504350442 0.33789629718561964 154 144 143 0.34536856092189261 25 55 24 71
1540 0.64862751890633952 -2.5525563764873955 0.37142944068070743 151 144 152 0.51126898146403943 25 63 24 77
1541 0.49164694953929944 -2.6338252182879844 0.46638515406056114 169 168 182 1.8522841921882784 24 84 23 80 22 85 21 82 20 82 16 94
1542 0.2876784817977695 -3.0279026077235192 1.2075957695107673 198 200 219 1.8826137377611569 25 79 38 94 39 84 24 91 23 93 42 111
1543 3.3891063537867834 -2.683876888981104 -1.1611995310161942 196 208 230 1.5866806324871505 25 97 26 95 24 101 22 77
1544 3.5191940657350407 -2.3268314022812735 -0.91316701863533101 183 197 225 1.8803303958157047 25 106 26 100 24 112
1545 -0.02018871596830181 -2.5253609336385874 1.3498995173342014 212 212 224 1.2356443432903712 25 98 24 113 20 111 19 142 22 117 18 123 17 115 15 144
1546 0.038861512812238874 -2.4880372949492195 -2.2096187790450927 134 128 116 0.72014736359764575 25 104 24 121 23 123 22 120 20 114
1547 3.2950807742665504 -2.5417177576126466 1.5455255580162754 139 131 118 0.96304084975398785 28 115 24 122 23 113 22 104 21 92
1548 5.3099389821935903 -3.8099306529543284 -4.5692400809492808 131 127 128 0.44514246302592103 26 144 24 157
1549 4.4895784767417881 -1.8177329413049288 -2.7665406054761461 120 117 112 2.3923865230728443 25 158 30 192 24 184
1550 -2.0081116740783234 -2.7738448070787469 -6.1571094698945563 141 135 123 1.9236046209950319 26 176 24 191 23 172 55 225 44 195
1551 -3.6551402255032972 -3.6032699823397016 -6.869829840159956 145 139 127 1.4105714756168293 32 188 20 174 27 161 13 191
1552 6.2379042642225411 -1.9283056035306767 0.55670758115758801 137 128 106 0.51601022497894111 28 202 24 199
1553 5.5679923240061102 -1.607638975328352 -0.0042698619952843391 129 122 98 1.5458133063184825 31 202 24 201 20 157 19 177
1554 -10.43960502668217 -6.6281295655721024 -14.844260741843026 141 135 123 2.3237661607877698 25 190 26 197 28 198 24 220
1555 -4.6828748605539587 -2.235443979093962 -2.0341748208950463 166 158 147 1.2390469048435537 29 170 24 221 21 207 20 211
1556 4.8690821802304312 -1.3716161983967565 -2.3508290617152952 109 113 110 0.94791910795431211 25 193 24 224
1557 1.7797203393672556 -0.3905363239604277 0.86400310950768511 157 150 131 0.20822442088371168 30 225 24 227
1559 -5.9780870966599764 -2.5002835269169039 10.003816152449389 0 0 0 0.79754881833655378 37 268 38 278 39 249 40 263 41 264 43 244 42 275 36 255
1560 3.9441976389617963 -1.3873932293863276 -6.7680854824195507 84 92 86 1.9143033033966683 25 260 26 253 24 282 23 260 22 269 21 261 18 239 21 241 17 230 15 245 16 225 14 248 49 317 61 317 63 294
1562 5.8910967908494403 -0.19978865980501376 -6.4136298271004542 55 64 61 1.4360096898549028 25 363 24 382 16 340 17 334 18 340 15 367 14 356 13 344 12 341 11 384 10 407 9 378 8 375 7 437 6 415 4 405 5 432 3 403 1 433 2 408 0 404
1564 6.3559140370933696 0.31199540960500594 1.0301041336102936 84 84 84 1.0938394300872194 25 405 26 401 24 431 23 409 22 416 21 415 20 410 19 427 18 410 16 413 17 404 15 421 14 426 13 416 12 422 11 457 10 478 9 460 8 453 7 524 6 511 4 511 5 527 3 496 1 526 2 513 0 502
1565 3.3237630483794343 0.8917396263547176 -11.253688298478586 98 101 82 1.4907190776261754 24 437 23 416 22 424 20 405 19 433 18 416 17 420 12 425 11 444 10 466 9 448 8 442
1566 6.5686746941376599 0.68395166230405291 0.69038341519718094 84 81 74 1.1594597944614784 27 428 28 450 24 475 23 469 22 487 21 465 20 476 18 481 15 495 14 495 13 490 12 507 11 530 10 561 9 553 8 547 7 616 6 612 4 606 5 627 3 593 1 618 2 621 0 591
1567 -1.1719815460416592 1.4416850822781471 -7.9717012393600761 93 79 66 0.77924563214799358 25 482 30 482 24 506 23 480 22 492 21 486 20 478 19 483 18 476 16 471 17 466 15 481 11 500 10 520 9 503 8 492 7 551 4 525 3 513
1568 10.393710361739315 4.4325554915284888 -17.872942435091755 87 95 78 1.864545862354132 52 507 23 512 22 530 21 519 20 517 19 525 18 518 17 509 48 514
1569 6.6338688130491574 1.1796647702870233 0.7375233944423486 78 75 68 1.5141509923681167 25 504 28 499 24 542 23 530 22 550 21 532 20 543 19 561 18 557 16 565 17 554 15 572 17 555 14 572 13 570 6 693
1570 2.369382067690716 0.91272742879382152 3.2421756265580717 199 199 185 1.3532269768179912 30 514 39 514 24 556 20 526 16 493
1571 8.5950171180984043 1.9068658129290461 -3.2301908290211516 86 90 85 1.1422625959601673 22 560 21 544 18 547 14 582 13 571 12 575 11 610 10 632 9 628 6 678 4 665 5 685 3 650 1 679 2 673 0 664
